x,y,z,nx,ny,nz,radius,CCI,branch_id,parent_branch_id,tree_id,tree_volume,segment_angle_to_horiz,height_above_dtm
417226.0332431339,6335825.453214989,195.9090252086299,-0.00025136682770554,0.0,0.9999999684073584,0.11823209344647918,0.0,19.0,7.0,3.0,1.564117238581268,89.98559774151121,0.0
417226.0331912058,6335825.453214989,196.11560786231487,-0.00025136682770554,0.0,0.9999999684073584,0.11823209344647918,0.0,19.0,7.0,3.0,1.564117238581268,89.98559774151121,0.20658182283628435
417226.0331674055,6335825.453214989,196.35344714652211,-0.0018376107211010918,0.0,0.9974054521067635,0.12263144296187364,0.575,7.0,7.0,3.0,1.564117238581268,61.60276228445559,0.5141466391877714
417226.03278659994,6335825.469992386,196.5343016978004,-0.0018376109887247166,0.07196517942302866,0.9974054521677178,0.11823209344647918,0.575,7.0,7.0,3.0,1.564117238581268,61.60276228445559,0.6495882763271652
417226.03250099573,6335825.483041473,196.7396229458937,-0.0018376109887242138,0.07196518027458693,0.9974054521677178,0.11823209344647918,0.0,41.0,31.0,3.0,1.564117238581268,87.22381085397275,0.8310242173067195
417226.03212019015,6335825.497954715,196.944944193987,-0.0018376109887242138,0.07196518027458693,0.9974054521677178,0.11823209344647918,0.0,41.0,31.0,3.0,1.564117238581268,87.22381085397275,1.0352168076088049
417226.0317393846,6335825.512867956,197.1502654420803,-0.0018376109887247166,0.07196517942302866,0.9974054522286722,0.11823209344647918,0.0,41.0,31.0,3.0,1.564117238581268,87.22381085397275,1.2394093979099807
417226.0314537804,6335825.526044709,197.33522899631865,-0.0018376112563473358,0.07196517942302866,0.9974054521067635,0.11823209344647918,0.525,31.0,31.0,3.0,1.564117238581268,84.13251097899195,1.6166421932159665
417226.0549161265,6335825.516215753,197.52237181709614,0.023432752303711866,0.04238896940382434,0.9988263519713296,0.11823209344647918,0.5375,31.0,31.0,3.0,1.564117238581268,84.13251097899195,1.6848512563375664
417226.0608970796,6335825.522707345,197.7583535973534,0.023432752303711866,0.04238896940382434,0.9988263519713296,0.11823209344647918,0.0,41.0,31.0,3.0,1.564117238581268,87.22381085397275,1.8513838607998423
417226.0773426796,6335825.537722452,198.02906974763874,-0.014853435886074174,0.0099607297242357,0.9998400668635655,0.15208827131581482,0.725,41.0,41.0,3.0,1.564117238581268,88.97526246150757,2.2413599293715833
417226.0723831447,6335825.5391388135,198.25144240295725,-0.014853435886074174,0.0099607297242357,0.9998400668635655,0.15197048866540425,0.925,41.0,41.0,3.0,1.564117238581268,88.97526246150757,2.470804394567324
417226.06780027074,6335825.537803589,198.44810109989572,-0.014853435886074174,0.0099607297242357,0.9998400668635655,0.14758525991720145,0.9875,41.0,41.0,3.0,1.564117238581268,88.97526246150757,2.714445501944283
417226.05279188044,6335825.544619227,198.68994072941555,-0.06871132755025056,0.0099607297242357,0.9976161255869033,0.14294666228604436,0.9875,41.0,41.0,3.0,1.564117238581268,88.97526246150757,2.8062699378773743
417226.04151656403,6335825.541680893,198.87975882187772,-0.014853435886074174,0.0099607297242357,0.9998400668635655,0.13455023787024528,1.0,41.0,41.0,3.0,1.564117238581268,88.97526246150757,3.02430397109012
417226.0540092246,6335825.543976152,199.12121260727744,-0.014853435886074174,0.0099607297242357,0.9998400668635655,0.1307519545221873,1.0,41.0,41.0,3.0,1.564117238581268,88.97526246150757,3.3160434834937575
417226.0484940782,6335825.566954201,199.34719952025435,-0.014853435886074174,0.0099607297242357,0.9987935435588938,0.1304831497359087,1.0,41.0,41.0,3.0,1.564117238581268,88.97526246150757,3.468247095272517
417226.0496674277,6335825.559865705,199.55126724134487,-0.003494502874950819,0.0099607297242357,0.9993362331921045,0.12678606178029161,1.0,41.0,41.0,3.0,1.564117238581268,88.97526246150757,3.7727690568177934
417226.05076407694,6335825.55265153,199.72757744124723,-0.014853435886074174,0.0099607297242357,0.9998400668635655,0.12239385349981048,0.9875,41.0,41.0,3.0,1.564117238581268,88.97526246150757,3.871707090330716
417226.04716181057,6335825.535179773,199.95282866183015,0.009557117173284167,-0.013607141343493417,0.998302721534678,0.12383792118201775,0.9375,41.0,41.0,3.0,1.564117238581268,88.97526246150757,4.06837166983135
417226.0516108031,6335825.524963684,200.20758463629852,-0.014853435886074174,0.0099607297242357,0.9998400668635655,0.13238778179249577,1.0,41.0,41.0,3.0,1.564117238581268,88.97526246150757,4.4628137599681
417226.031184286,6335825.531272142,200.4188786365657,-0.014853435886074174,0.0099607297242357,0.9998400668635655,0.12425098001352541,1.0,41.0,41.0,3.0,1.564117238581268,88.97526246150757,4.6180248440014395
417226.01182599587,6335825.54329526,200.6513682632347,-0.014853435886074174,0.0099607297242357,0.9998400668635655,0.12932859108526024,1.0,41.0,41.0,3.0,1.564117238581268,88.97526246150757,4.873087585611074
417226.01593498094,6335825.535818059,200.84958987811564,-0.014853435886074174,0.0099607297242357,0.9986835886767746,0.12400104603543946,1.0,41.0,41.0,3.0,1.564117238581268,88.97526246150757,5.117711224940365
417226.003415452,6335825.53885087,201.0753775019749,-0.014853435886074174,0.008665048266156777,0.9983754812446759,0.12070198815506643,1.0,41.0,41.0,3.0,1.564117238581268,88.97526246150757,5.26972061500652
417226.01560875576,6335825.546570435,201.29856195063732,0.024761606255742648,0.025247632822915284,0.9990586298254187,0.11953669498698591,1.0,41.0,41.0,3.0,1.564117238581268,88.97526246150757,5.372531801348856
417226.0199502404,6335825.555932796,201.52355904357256,-0.014853435886074174,0.0099607297242357,0.9998400668635655,0.11953669498698591,0.9875,41.0,41.0,3.0,1.564117238581268,88.97526246150757,5.668594853555504
417226.0228527403,6335825.559572696,201.72906578610886,-0.0043180050419216525,0.0099607297242357,0.9998400668635655,0.11820447953315213,0.9625,41.0,41.0,3.0,1.564117238581268,88.97526246150757,5.822818006836258
417226.0164944186,6335825.559184657,201.95310322168433,-0.014853435886074174,0.0099607297242357,0.9998400668635655,0.11630281901472357,1.0,41.0,41.0,3.0,1.564117238581268,88.97526246150757,6.219228909937755
417226.0176520038,6335825.567781778,202.20559179092461,-0.014853435886074174,0.0099607297242357,0.9994642600009672,0.11986710699141193,1.0,41.0,41.0,3.0,1.564117238581268,88.97526246150757,6.276325775671182
417226.01598270267,6335825.573906086,202.41124014782923,-0.0073096739184408495,0.0099607297242357,0.9995217221675683,0.12560196998035067,0.9625,41.0,41.0,3.0,1.564117238581268,88.97526246150757,6.526216886927216
417226.01274594496,6335825.580410008,202.65235786901084,-0.014853435886074174,0.0099607297242357,0.9998400668635655,0.1327747240316214,1.0,41.0,41.0,3.0,1.564117238581268,88.97526246150757,6.923328183905227
417226.0138202715,6335825.58702252,202.90108795596265,-0.014853435886074174,0.016350032444546546,0.9991504111413174,0.1300420899120689,1.0,41.0,41.0,3.0,1.564117238581268,88.97526246150757,6.972941083642439
417226.02373662736,6335825.588170355,203.05192323306687,-0.014853435886074174,0.0099607297242357,0.9998400668635655,0.13180906963153213,1.0,41.0,41.0,3.0,1.564117238581268,88.97526246150757,7.176206657237685
417226.01171206933,6335825.585950212,203.25796962394946,-0.053632698018025726,0.046518273082582495,0.995098961121948,0.14012875252533952,0.9875,41.0,41.0,3.0,1.564117238581268,88.97526246150757,7.376252023223458
417225.9921868593,6335825.623366946,203.45948374569437,-0.06928711157496242,0.0099607297242357,0.997188224773088,0.15274131343014247,0.875,41.0,41.0,3.0,1.564117238581268,88.97526246150757,7.682065936232107
417225.9697724495,6335825.606657088,203.68107936378215,-0.014853435886074174,0.0099607297242357,0.9998400668635655,0.1499098883024163,0.95,41.0,41.0,3.0,1.564117238581268,88.97526246150757,7.875668121144855
417225.95908568247,6335825.629210249,203.95446439494037,-0.060403357764599,0.06729835506460738,0.9943150993957607,0.1535760148569208,0.95,41.0,41.0,3.0,1.564117238581268,88.97526246150757,8.072412502111035
417225.97148421087,6335825.688677154,204.17391921243814,0.017140718544341356,0.0099607297242357,0.9388279647159892,0.19552421415578297,0.5125,41.0,41.0,3.0,1.564117238581268,88.97526246150757,8.227936468245076
417225.86215054773,6335825.625157827,204.35948732780975,-0.04030316264902846,-0.03745678130003554,0.9297439957916673,0.19343838548075948,0.6625,41.0,41.0,3.0,1.564117238581268,88.97526246150757,8.480885470650549
417225.9116388719,6335825.698439924,204.55689196589165,-0.014853435886074174,0.0099607297242357,0.9984851749601129,0.20976353982588877,0.5125,41.0,41.0,3.0,1.564117238581268,88.97526246150757,8.650577801676008
417225.8418276953,6335825.600096386,204.70395559153684,-0.04030316264902846,-0.03745678130003554,0.9984851749601129,0.17395313270805657,0.3875,41.0,41.0,3.0,1.564117238581268,88.97526246150757,8.943499535053718
417225.8514915662,6335825.578567328,204.9224130668233,-0.04030316264902846,0.0099607297242357,0.9861194959271967,0.17056715400571393,0.5625,41.0,41.0,3.0,1.564117238581268,88.97526246150757,9.186361525069287
417225.9032818383,6335825.6519495305,205.11755296133046,-0.014853435886074174,0.0099607297242357,0.9984851749601129,0.1866992645102294,0.6125,41.0,41.0,3.0,1.564117238581268,88.97526246150757,9.337117702254659
417225.93562418764,6335825.730841163,205.28291464479634,-0.014853435886074174,0.0099607297242357,0.9984851749601129,0.21649841735792133,0.6375,41.0,41.0,3.0,1.564117238581268,88.97526246150757,9.381893201181299
417225.9328691099,6335825.634086214,205.4795748066831,-0.04030316264902846,-0.03745678130003554,0.9984851749601129,0.17321700833269973,0.0,149.0,41.0,3.0,1.564117238581268,86.84591272346174,9.574834754853924
417225.9435540069,6335825.596031997,205.7029258855973,-0.04030316264902846,-0.03745678130003554,0.9606973738222977,0.12993559930747814,0.8,149.0,41.0,3.0,1.564117238581268,86.19385806702479,9.872750718963204
417225.91094949073,6335825.611884938,205.8877481528437,-0.1174842434194118,-0.019542065459451037,0.9891398067633161,0.0966670499254467,0.9,149.0,149.0,3.0,1.564117238581268,86.19385806702479,10.032150845398746
417222.6515061957,6335827.008237816,195.90812782105107,0.03525265192994707,0.022305632745237784,0.9991294757336211,0.13636950890743282,0.0,2.0,2.0,1.0,1.1949648931655137,87.60911007737027,0.0
417222.65812494885,6335827.012425742,196.14931300902137,0.03525265192994707,0.022305632745237784,0.9991294757336211,0.13636950890743282,0.6375,2.0,0.0,1.0,1.1949648931655137,86.79022811635286,0.3996737063409057
417222.66953547404,6335827.017845525,196.37723459933665,0.02632314534691637,0.053221629577693885,0.9984312292169383,0.13772342716653502,0.8875,2.0,2.0,1.0,1.1949648931655137,86.79022811635286,0.6163642546808035
417222.672910578,6335827.03800994,196.59688649271402,0.01739363876388567,0.053221629577693885,0.9984312292169383,0.13133082317036543,1.0,2.0,2.0,1.0,1.1949648931655137,86.79022811635286,0.770373821689418
417222.6902765486,6335827.071742484,196.8170247821716,0.014366465199890434,0.08579170792415601,0.9962095098567955,0.12909187851545387,1.0,2.0,2.0,1.0,1.1949648931655137,86.79022811635286,1.0191785525808825
417222.67587752757,6335827.08369772,197.04925190810025,0.01739363876388567,0.053221629577693885,0.9984312292169383,0.11963012567316056,1.0,2.0,2.0,1.0,1.1949648931655137,86.79022811635286,1.1295370023670444
417222.67564576387,6335827.088186751,197.29039092537752,0.01739363876388567,0.053221629577693885,0.9984312292169383,0.11963012567316056,1.0,2.0,2.0,1.0,1.1949648931655137,86.79022811635286,1.5718443907166488
417222.7212338298,6335827.085870872,197.54654130749344,0.08416353412151281,0.053221629577693885,0.9918961506583214,0.11879514093856058,1.0,2.0,2.0,1.0,1.1949648931655137,86.79022811635286,1.8210165799028744
417222.7503867127,6335827.115278739,197.79515567899116,0.01739363876388567,0.053221629577693885,0.9984312292169383,0.11572498288181281,1.0,2.0,2.0,1.0,1.1949648931655137,86.79022811635286,1.873577932966299
417222.76235699345,6335827.154196636,198.04047388735853,0.01739363876388567,0.06828341412450276,0.9958960842476381,0.10685289031075129,1.0,2.0,2.0,1.0,1.1949648931655137,86.79022811635286,2.115632170713667
417222.7738607096,6335827.164224007,198.22219453712543,0.07229581023362094,0.04702755365497242,0.9951318525331094,0.09907675244439128,0.975,2.0,2.0,1.0,1.1949648931655137,86.79022811635286,2.4264687611157
417222.76846599445,6335827.180350744,198.45371177699724,0.01739363876388567,0.053221629577693885,0.9984312292169383,0.10089529014373842,0.975,2.0,2.0,1.0,1.1949648931655137,86.79022811635286,2.587400188928882
417222.7842961669,6335827.203886531,198.63798504176867,0.059742758256491744,0.053221629577693885,0.994909667006348,0.09973713434643776,0.975,2.0,2.0,1.0,1.1949648931655137,86.79022811635286,2.9221274715355037
417222.7886217497,6335827.207265309,198.84975115893593,0.014238598902986916,0.022946018498829726,0.9984312292169383,0.09369379669095096,0.975,2.0,2.0,1.0,1.1949648931655137,86.79022811635286,2.9766519374314555
417222.7898564287,6335827.187521418,199.09517504173206,0.011029931265981058,0.053221629577693885,0.9953571374154755,0.09335263563847437,0.9875,2.0,2.0,1.0,1.1949648931655137,86.79022811635286,3.3246906532397418
417222.7773870328,6335827.186174113,199.27398775884686,-0.01961452872493724,0.05647940481557258,0.9952464861636569,0.0909280914585698,0.975,2.0,2.0,1.0,1.1949648931655137,86.79022811635286,3.4291405316136263
417222.7597807454,6335827.206517639,199.50019311546632,0.014211785014933365,0.07535314847151844,0.9968388576902976,0.09066454546852756,0.9375,2.0,2.0,1.0,1.1949648931655137,86.79022811635286,3.681228166291561
417222.765131601,6335827.216339871,199.68743016045732,0.011029931265981058,0.053221629577693885,0.9952464861636569,0.09368112132317778,0.8375,2.0,2.0,1.0,1.1949648931655137,86.79022811635286,3.8245888813983697
417222.740931424,6335827.205059113,199.87735527420563,0.011029931265981058,0.053221629577693885,0.9952464861636569,0.0920632486573409,0.9125,2.0,2.0,1.0,1.1949648931655137,86.79022811635286,4.081061657746801
417222.7356297476,6335827.257343042,200.04925974406012,0.014211785014933365,0.0749915247752709,0.9952464861636569,0.108954085804148,0.7125,2.0,2.0,1.0,1.1949648931655137,86.79022811635286,4.32608457645776
417222.72447487654,6335827.235842196,200.27794173430954,0.01739363876388567,0.09676141997284794,0.9952464861636569,0.09417157266440124,0.85,2.0,2.0,1.0,1.1949648931655137,86.79022811635286,4.526904122863698
417222.75325450534,6335827.270121313,200.49633466545566,0.01739363876388567,0.09676141997284794,0.9952464861636569,0.08981522789486114,0.9125,2.0,2.0,1.0,1.1949648931655137,86.79022811635286,4.727918635771175
417222.7836681777,6335827.2797860745,200.69309215152018,0.01739363876388567,0.06309741183490379,0.9952464861636569,0.09005980649575804,0.8,2.0,2.0,1.0,1.1949648931655137,86.79022811635286,4.874510788995792
417222.78532863385,6335827.308684108,200.9000380612452,0.011029931265981058,0.09600818349181013,0.9952464861636569,0.09005980649575804,0.8875,2.0,2.0,1.0,1.1949648931655137,86.79022811635286,5.136293463270363
417222.78223364544,6335827.3124228865,201.10182803358407,0.011029931265981058,0.07320167502854771,0.9967069910463721,0.08453458738995168,0.875,2.0,2.0,1.0,1.1949648931655137,86.79022811635286,5.187367505918132
417222.76676083787,6335827.337243396,201.3063844945751,0.01739363876388567,0.053221629577693885,0.9965862570132907,0.08721530013580293,0.875,2.0,2.0,1.0,1.1949648931655137,86.79022811635286,5.441476218969399
417222.78967090126,6335827.3809945565,201.5027598184828,0.011029931265981058,0.09676141997284794,0.9952464861636569,0.08990137772133591,0.8125,2.0,2.0,1.0,1.1949648931655137,86.79022811635286,5.631391240713441
417222.75006792304,6335827.378071547,201.6384155955962,0.01739363876388567,0.09676141997284794,0.9952464861636569,0.09066454546852756,0.9,2.0,2.0,1.0,1.1949648931655137,86.79022811635286,5.883981268356706
417222.8224887767,6335827.459054733,201.8377282416276,0.011029931265981058,0.09676141997284794,0.9952464861636569,0.09066454546852756,0.0,86.0,2.0,1.0,1.1949648931655137,84.41121764732638,5.951290876787112
417222.8300791401,6335827.476178455,202.05995740153963,-0.10612014945120891,0.11444460306079277,0.9877453855679158,0.10357597892613277,0.8125,86.0,86.0,1.0,1.1949648931655137,81.0209174333398,6.33895594272451
417222.75935322756,6335827.63344527,202.28968942631363,-0.10612014945120891,0.11444460306079277,0.8021923551056325,0.16858627513875632,0.575,86.0,2.0,1.0,1.1949648931655137,81.0209174333398,6.387635530244069
417222.88848300563,6335827.625738855,202.45323011700162,0.022563422059371667,0.11444460306079277,0.9665487567449408,0.08781264939225325,0.925,86.0,86.0,1.0,1.1949648931655137,81.0209174333398,6.652524161460661
417222.89312301006,6335827.651558869,202.6743040849903,-0.10612014945120891,0.11444460306079277,0.9877453855679158,0.0721296471871163,0.8875,86.0,86.0,1.0,1.1949648931655137,81.0209174333398,6.958591217989664
417222.8555638289,6335827.685271465,202.89660091668148,-0.13077304566703685,0.24262732342389612,0.9506532310635956,0.07658080032659684,0.8875,86.0,86.0,1.0,1.1949648931655137,81.0209174333398,7.050162306834551
417222.83340144844,6335827.723905869,203.05841830644718,-0.10346264375975762,0.20171983511589608,0.9746967640257602,0.08296994196561581,0.775,86.0,86.0,1.0,1.1949648931655137,81.0209174333398,7.206668399603899
417222.78327878105,6335827.787768419,203.31075204820172,-0.16388281153770795,0.11444460306079277,0.9864642889248707,0.09213872466550337,0.825,86.0,86.0,1.0,1.1949648931655137,81.0209174333398,7.4135858984180345
417222.7430740138,6335827.801995937,203.5000397278996,-0.10612014945120891,0.10955876396649858,0.9827588520728406,0.08729537450303698,0.85,86.0,86.0,1.0,1.1949648931655137,81.0209174333398,7.706714936710284
417222.7068805786,6335827.798669737,203.7608292820197,-0.10612014945120891,-0.00511502248671185,0.9863559789919527,0.07920937706549436,0.8125,86.0,86.0,1.0,1.1949648931655137,81.0209174333398,7.855332308238218
417222.67689826497,6335827.803261735,203.90933116541783,-0.3124679998683969,0.11444460306079277,0.9450554920947526,0.07109665846004,0.8625,86.0,86.0,1.0,1.1949648931655137,81.0209174333398,8.168489105713633
417222.61229470815,6335827.820312586,204.1415102108481,-0.10612014945120891,0.11444460306079277,0.7192947392202961,0.07777488904687804,0.8125,86.0,86.0,1.0,1.1949648931655137,81.0209174333398,8.406976688940631
417222.6276547658,6335827.896080387,204.32876266979088,0.2287084907163431,0.11444460306079277,0.9227336153524878,0.15009191452923168,0.4,86.0,86.0,1.0,1.1949648931655137,81.0209174333398,8.45857162852522
417222.7151802802,6335827.884562966,204.54352817695377,-0.10612014945120891,0.11444460306079277,0.8384649382472135,0.17241406117360583,0.4875,86.0,86.0,1.0,1.1949648931655137,81.0209174333398,8.678570784453456
417222.6289420949,6335827.7900285125,204.6923529009735,-0.11465529555881868,0.20061851078416504,0.9298164884271001,0.08073356117885244,0.45,86.0,86.0,1.0,1.1949648931655137,81.0209174333398,8.844991105638911
417222.609558246,6335827.871599434,204.87053838490684,-0.12319044166642845,0.35204493027935796,0.9278407633568555,0.0816989977511336,0.375,86.0,86.0,1.0,1.1949648931655137,81.0209174333398,9.068726905843192
417222.5778427302,6335827.962233792,205.09485947366562,-0.12319044166642845,0.35204493027935796,0.9278407633568555,0.0816989977511336,0.0,137.0,86.0,1.0,1.1949648931655137,68.10069272186672,9.234135337038254
417222.60863944364,6335827.990310986,205.3424705988706,-0.10364176900945807,0.2734003514187199,0.7949471846136553,0.0914067381025421,0.4125,137.0,86.0,1.0,1.1949648931655137,72.99916447302473,9.475139198861143
417222.5275402115,6335828.041921107,205.4638546308895,-0.42229051649922883,0.4355797210036727,0.7949471846136553,0.08512323983685288,0.45,137.0,137.0,1.0,1.1949648931655137,72.99916447302473,9.722473014207111
417222.4968346052,6335828.087656508,205.63007950170172,-0.12056484073589722,0.29418381738270527,0.948113917611416,0.0808515399202763,0.6375,137.0,137.0,1.0,1.1949648931655137,72.99916447302473,9.933651957686635
417222.4176871008,6335828.190122064,205.81708248136545,-0.42229051649922883,0.4355797210036727,0.7949471846136553,0.08512323983685288,0.0,159.0,137.0,1.0,1.1949648931655137,52.65026738507339,9.970650757203828
417222.31834769016,6335828.292587621,206.0040854610292,-0.5023504800347626,0.3775485699967554,0.7949471846136553,0.08512323983685288,0.5875,159.0,159.0,1.0,1.1949648931655137,53.380571815519914,10.264394633507948
417222.22210297466,6335828.338235613,206.1633320499227,-0.5023504800347626,0.23826025842722973,0.8311895358238296,0.07252616769656103,0.0,193.0,159.0,1.0,1.1949648931655137,56.221126689569374,10.31503950694318
417222.0983597691,6335828.396925889,206.36807766421433,-0.3415042484157528,0.3557011167268826,0.8699721627001868,0.0599290955562692,0.5875,193.0,193.0,1.0,1.1949648931655137,60.61083793872183,10.639232796742334
417219.9025584213,6335825.0520605855,195.948165446455,0.013663167804436075,0.001442932640961545,0.9999056134410594,0.0631213148812736,0.0,18.0,18.0,6.0,0.19702941834838814,89.21277999327816,0.0
417219.90533406555,6335825.052353715,196.15129420305186,0.013663167804436075,0.001442932640961545,0.9999056134410594,0.0631213148812736,0.0,18.0,18.0,6.0,0.19702941834838814,89.21277999327816,0.20314133390192524
417219.90810970985,6335825.052646844,196.35442295964873,0.013663167804436075,0.001442932640961545,0.9999056134410594,0.0631213148812736,0.0,18.0,18.0,6.0,0.19702941834838814,89.21277999327816,0.40628266779049227
417219.90512690373,6335825.052976613,196.6042350072408,0.013663167804436075,0.001442932640961545,0.9942277921152098,0.0631213148812736,0.575,18.0,18.0,6.0,0.19702941834838814,83.84089317454293,0.7725211187126604
417219.9136894278,6335825.053269742,196.75485297071657,0.013663167804436075,0.0933905546995479,0.9930151687328224,0.06334389990171968,0.5125,18.0,18.0,6.0,0.19702941834838814,83.84089317454293,0.8315296087776574
417219.89901084825,6335825.11164688,196.95274312795198,-0.007089247341406383,0.16882760703589125,0.9856201000764276,0.0639127531447916,0.5,18.0,18.0,6.0,0.19702941834838814,83.84089317454293,1.0332052062491925
417219.9030120907,6335825.179430942,197.23802892977335,0.08505299813058585,0.22030014743445175,0.971716950839779,0.07156113712504583,0.6375,29.0,18.0,6.0,0.19702941834838814,76.34066075143635,1.3678897147051714
417219.9470971577,6335825.240902046,197.41402159865427,0.07983925025111367,0.25555326134379486,0.9616233623321911,0.07855723997037908,0.6,29.0,29.0,6.0,0.19702941834838814,76.34066075143635,1.6289374222683364
417219.9192149054,6335825.28381643,197.64826088136346,-0.022787393188870905,0.1621402001928442,0.9862755969369374,0.05370463667201085,0.65,29.0,29.0,6.0,0.19702941834838814,76.34066075143635,1.843690238303509
417219.9173420744,6335825.299508942,197.84901505243667,0.08505299813058585,0.1621402001928442,0.971716950839779,0.05370463667201085,0.725,29.0,29.0,6.0,0.19702941834838814,76.34066075143635,1.9015715481612858
417219.9038641839,6335825.357711356,198.02467495212574,-0.031160910899909293,0.1621402001928442,0.9862755969369374,0.05370463667201085,0.0,43.0,29.0,6.0,0.19702941834838814,80.49652756191993,2.0813890029269544
417219.89989997575,6335825.386589219,198.20033485181477,0.017573684442988926,0.1227790487119841,0.9862755969369374,0.05370463667201085,0.5,43.0,29.0,6.0,0.19702941834838814,82.87523648318484,2.332420672977605
417219.9345661976,6335825.406441199,198.4291868172109,0.15588573500395259,0.08536490675989024,0.9840795040626306,0.04331881059353461,0.0,48.0,43.0,6.0,0.19702941834838814,79.76250276460972,2.4855514165646184
417219.9667901133,6335825.424087403,198.6326107864519,0.15588573500395259,0.08536490675989024,0.9840795040626306,0.04331881059353461,0.0,48.0,43.0,6.0,0.19702941834838814,79.76250276460972,2.6897257413473312
417219.999014029,6335825.441733608,198.83603475569288,0.15588573500395259,0.08536490675989024,0.9840795040626306,0.04331881059353461,0.0,48.0,43.0,6.0,0.19702941834838814,79.76250276460972,2.8935707434808933
417220.03123794467,6335825.459379813,199.03945872493387,0.15588573500395259,0.08536490675989024,0.9840795040626306,0.04331881059353461,0.0,48.0,43.0,6.0,0.19702941834838814,79.76250276460972,3.0973472544367837
417220.0594338709,6335825.474820241,199.21745469801974,0.15588573500395259,0.08536490675989024,0.9840795040626306,0.04331881059353461,0.3125,48.0,43.0,6.0,0.19702941834838814,85.21206386269398,3.3525831770388095
417226.8415482801,6335827.225869891,195.8820550740507,-0.0038759837536064905,0.028492461044113536,0.9995864927126574,0.2595866370146399,0.0,24.0,16.0,5.0,3.6863643478448274,88.35223914808695,0.0
417226.84077109944,6335827.231582968,196.08248400901954,-0.0038759837536064905,0.028492461044113536,0.9995864927126574,0.2595866370146399,0.0,24.0,16.0,5.0,3.6863643478448274,88.35223914808695,0.20057760182186257
417226.8399939188,6335827.237296043,196.28291294398838,-0.0038759837536064905,0.028492461044113536,0.9995864927126574,0.2595866370146399,0.0,24.0,16.0,5.0,3.6863643478448274,88.35223914808695,0.4011552036225794
417226.8391195905,6335827.223727488,196.53997445227313,-0.026731144273323744,0.028492461044113536,0.996688776489752,0.2595866370146399,0.45,16.0,16.0,5.0,3.6863643478448274,85.33607252202785,0.7847275675129026
417226.83521253004,6335827.243769435,196.7003612212937,-0.031219652048296593,0.06967919829463792,0.9958474474891537,0.25657822379989303,0.0,24.0,16.0,5.0,3.6863643478448274,88.35223914808695,0.802310407267754
417226.82155553513,6335827.253323762,196.90089711915908,0.02258090296613523,0.028492461044113536,0.9986917519707266,0.2595866370146399,0.8375,24.0,24.0,5.0,3.6863643478448274,80.4307732104405,1.1796753534053153
417226.83911538776,6335827.260878463,197.10457615702123,0.0798692216385547,0.04297696873306823,0.9948103608024411,0.26866295189644984,0.85,24.0,24.0,5.0,3.6863643478448274,80.4307732104405,1.2778726818363282
417226.8395963672,6335827.258709024,197.2513915999038,0.04903778968587695,0.014494127375061248,0.9986917519707266,0.26636401830694717,0.875,24.0,24.0,5.0,3.6863643478448274,80.4307732104405,1.4332446665758596
417226.84740488895,6335827.261016993,197.50214231540076,0.04903778968587695,0.014494127375061248,0.9986917519707266,0.2587993373992736,0.0,37.0,24.0,5.0,3.6863643478448274,87.06890406424927,1.6165129630971364
417226.8524005658,6335827.274429632,197.70553955253388,0.0019200668894022775,0.10272795444358367,0.9947076358000764,0.2636790911418884,0.6875,37.0,24.0,5.0,3.6863643478448274,84.10268650673665,1.8283611859112057
417226.85193577915,6335827.264917578,197.99016889743075,0.0019200668894022775,-0.052955165239215424,0.9947076358000764,0.25353152460187744,0.775,37.0,37.0,5.0,3.6863643478448274,84.10268650673665,2.239205926618496
417226.8545426869,6335827.261475531,198.19403013481585,0.0019200668894022775,0.10272795444358367,0.9947076358000764,0.2385388161578808,0.9375,37.0,37.0,5.0,3.6863643478448274,84.10268650673665,2.43482445246849
417226.85279324226,6335827.289333004,198.43799646872807,0.0019200668894022775,0.10272795444358367,0.9947076358000764,0.2533350706687812,0.9375,37.0,37.0,5.0,3.6863643478448274,84.10268650673665,2.5394716344567883
417226.85249594203,6335827.30613144,198.69323567971125,0.0019200668894022775,0.04865333019398865,0.9959683665526807,0.2538900300608071,0.9,37.0,37.0,5.0,3.6863643478448274,84.10268650673665,2.788667462165307
417226.8560552988,6335827.334541301,198.87348664991418,0.0019200668894022775,0.10272795444358367,0.9947076358000764,0.25974781065100566,0.875,37.0,37.0,5.0,3.6863643478448274,84.10268650673665,3.1471347146348023
417226.86080110807,6335827.312812727,199.0752164476142,0.023513524058336996,0.021707282733689933,0.9994878228686318,0.24140821516004757,0.0,49.0,37.0,5.0,3.6863643478448274,88.1661396530553,3.194231759404147
417226.86436046485,6335827.316098664,199.32351965251422,0.023513524058336996,0.02903826223951249,0.9993352881223685,0.24140821516004757,0.7875,49.0,49.0,5.0,3.6863643478448274,87.74791745599279,3.594841322796384
417226.8593810691,6335827.311245871,199.50302231038037,0.026080065088915718,0.028682368124598297,0.9992276085943431,0.23605478711811353,0.85,49.0,49.0,5.0,3.6863643478448274,87.74791745599279,3.7775278744655054
417226.86026599765,6335827.305241161,199.69310281489638,0.023326426416234728,0.028682368124598297,0.9992276085943431,0.23577410321923034,0.9625,49.0,49.0,5.0,3.6863643478448274,87.74791745599279,3.8875157425844975
417226.8642694774,6335827.304102652,199.85460345107,0.023326426416234728,0.028682368124598297,0.9992276085943431,0.23251834784895142,0.9875,49.0,49.0,5.0,3.6863643478448274,87.74791745599279,4.1549623117348915
417226.8543964762,6335827.315883068,200.08231163247135,0.026080065088915718,0.029394156354426684,0.9992276085943431,0.23605478711811353,1.0,49.0,49.0,5.0,3.6863643478448274,87.74791745599279,4.254159495821
417226.84942488687,6335827.345842823,200.2813541917506,-0.01706095463152643,0.028682368124598297,0.9994429676503938,0.23605478711811353,0.0,71.0,49.0,5.0,3.6863643478448274,88.08751516226286,4.402272213069608
417226.8459961163,6335827.351607171,200.4822140321042,-0.01706095463152643,0.028682368124598297,0.9994429676503938,0.23605478711811353,0.0,71.0,49.0,5.0,3.6863643478448274,88.08751516226286,4.603482286995302
417226.8425673457,6335827.357371518,200.6830738724578,-0.01706095463152643,0.028682368124598297,0.9994429676503938,0.23605478711811353,0.0,71.0,49.0,5.0,3.6863643478448274,88.08751516226286,4.804692360973604
417226.835352013,6335827.363891811,200.92839848606022,-0.08088712009783189,0.01177826118751615,0.9966536742347754,0.23605478711811353,1.0,71.0,71.0,5.0,3.6863643478448274,85.31140283272464,5.19761455777666
417226.8214836313,6335827.368596293,201.10593601475935,-0.08088712009783189,0.02208342045586607,0.9966536742347754,0.2338966462477161,1.0,71.0,71.0,5.0,3.6863643478448274,85.31140283272464,5.250147581878593
417226.8104124547,6335827.378999363,201.35585576784118,-0.08088712009783189,0.01177826118751615,0.9966536742347754,0.23520657444763757,1.0,71.0,71.0,5.0,3.6863643478448274,85.31140283272464,5.455224980131845
417226.78300640534,6335827.377987152,201.53369330656628,-0.1496238703980945,-0.007496994232385836,0.9844677815975503,0.24142697761173035,0.975,71.0,71.0,5.0,3.6863643478448274,85.31140283272464,5.65561709431077
417226.7600906554,6335827.360539065,201.7570113371244,-0.22730174406836928,0.022515146153169442,0.9735640632936863,0.24043807683983304,0.675,71.0,71.0,5.0,3.6863643478448274,85.31140283272464,6.006743240806344
417226.7041137153,6335827.374817035,201.9550496423861,-0.18986323999330298,0.02251514511240689,0.9735640632936863,0.23580922882409508,0.7375,71.0,71.0,5.0,3.6863643478448274,85.31140283272464,6.059753077094456
417226.67539486644,6335827.502094477,202.1022659525893,0.09759987721568225,0.02465722741174897,0.9949202401145966,0.242601895569498,0.6375,71.0,71.0,5.0,3.6863643478448274,85.31140283272464,6.307827734787196
417226.68521550455,6335827.404933041,202.24948226279253,-0.17086785696608903,0.022515146159079444,0.9735640632936863,0.24638288010893503,0.65,71.0,71.0,5.0,3.6863643478448274,85.31140283272464,6.512451294254959
417226.6999464617,6335827.516983693,202.35590567055618,0.09759987722509296,0.024657239477135044,0.9949202401145966,0.22961849032329212,0.0,95.0,71.0,5.0,3.6863643478448274,78.37763352464272,6.508257538239349
417226.5666290839,6335827.3764272,202.48961440407868,-0.22730174432167657,0.022515146159079444,0.9735640632587516,0.07499814682260832,0.0,115.0,71.0,5.0,3.6863643478448274,76.79627709095519,6.599437410225761
417226.724498057,6335827.523186309,202.57832623105588,0.09759987722514782,0.024657239477135044,0.9949202401145966,0.22961849032329212,0.0,95.0,71.0,5.0,3.6863643478448274,78.37763352464272,6.705865264740311
417226.5208008734,6335827.380966667,202.6420590900011,-0.22730174432167657,0.022515146159079444,0.9735640632587516,0.07499814682260832,0.9375,89.0,71.0,5.0,3.6863643478448274,58.511437877312915,6.825850670465229
417226.7441393332,6335827.5281484015,202.77767677754395,0.09759987722509296,0.024657239477135044,0.9949202401145966,0.22961849032329212,0.0,95.0,71.0,5.0,3.6863643478448274,78.37763352464272,6.903472991241301
417226.48070118926,6335827.384938701,202.86288355530593,-0.22730174424224053,0.022515146153169442,0.9735640632762189,0.07499814682260832,0.0,115.0,71.0,5.0,3.6863643478448274,76.79627709095519,6.9933516444202155
417226.7637806094,6335827.533110495,202.977027324032,0.09759987722509296,0.024657239477135044,0.9949202401707665,0.22961849032329212,0.0,95.0,71.0,5.0,3.6863643478448274,78.37763352464272,7.101080717690621
417226.4348729788,6335827.3894781675,203.05917196891028,-0.22730174424224053,0.022515146153169442,0.9735640632762189,0.07499814682260832,0.0,115.0,71.0,5.0,3.6863643478448274,76.79627709095519,7.190060290214234
417226.780966726,6335827.537452326,203.1496257026712,0.09759987722509296,0.024657239477135044,0.9949202401707665,0.22961849032329212,0.9875,95.0,71.0,5.0,3.6863643478448274,75.53416917704294,7.298688444191612
417226.2902804159,6335827.395348441,203.163644361884,0.024328507315237537,0.07356575419486656,0.9735640632762189,0.11809136486811825,0.825,96.0,89.0,5.0,3.6863643478448274,85.55602976260526,7.410706894606108
417226.3775877157,6335827.395152502,203.30453248591562,-0.22730174419502291,0.022515146156124443,0.9735640632762189,0.07499814682260832,0.0,115.0,71.0,5.0,3.6863643478448274,76.79627709095519,7.435946097493883
417226.79569768324,6335827.542414419,203.3319809592547,0.09759987722509296,0.024657242694523775,0.994920240194795,0.22961849032329212,0.0,114.0,71.0,5.0,3.6863643478448274,84.22245642664656,7.46385151792839
417226.3317595052,6335827.399691969,203.5008208995199,-0.22730174419502291,0.022515146156124443,0.9735640632762189,0.07499814682260832,0.0,115.0,71.0,5.0,3.6863643478448274,76.79627709095519,7.632507609563476
417226.81533895945,6335827.547376512,203.53220153129544,0.09759987722509296,0.024657239477135044,0.9949202402749935,0.22961849032329212,0.0,114.0,71.0,5.0,3.6863643478448274,84.22245642664656,7.664093595114451
417226.2859312947,6335827.404231437,203.6971093131242,-0.22730174419502291,0.022515146156124443,0.9735640632762189,0.07499814682260832,0.0,115.0,71.0,5.0,3.6863643478448274,76.79627709095519,7.829065152353621
417226.83498023567,6335827.552338604,203.73242210333615,0.09759987722509296,0.024657239477135044,0.9949202402749935,0.22961849032329212,0.0,114.0,71.0,5.0,3.6863643478448274,84.22245642664656,7.8643356722670035
417226.24010308424,6335827.408770903,203.8933977267285,-0.22730174424230293,0.022515145632788166,0.9735640632762189,0.07499814682260832,0.0,115.0,71.0,5.0,3.6863643478448274,76.79627709095519,8.025622695143795
417226.8546215119,6335827.557300697,203.93264267537688,0.09759987722509296,0.024657239477135044,0.9949202402749935,0.22961849032329212,0.0,114.0,71.0,5.0,3.6863643478448274,84.22245642664656,8.064577749453122
417226.1942748738,6335827.41331037,204.0896861403328,-0.22730174419502291,0.022515146156124443,0.9735640632762189,0.07499814682260832,0.0,115.0,71.0,5.0,3.6863643478448274,76.79627709095519,8.222172449987738
417226.8742627881,6335827.56226279,204.1328632474176,0.09759987722509296,0.024657239477135044,0.9949202402749935,0.22961849032329212,0.0,114.0,71.0,5.0,3.6863643478448274,84.22245642664656,8.264819826605617
417226.1363091139,6335827.41907016,204.30147039571995,-0.22730174406836928,0.07421619967543255,0.9735640632936863,0.07499814682260832,0.9375,115.0,115.0,5.0,3.6863643478448274,74.48847220924617,8.60937563391306
417226.8793159728,6335827.546405359,204.36115695009778,0.018189221449209488,-0.1284177466135744,0.9883933134544985,0.22961849032329212,0.8,114.0,114.0,5.0,3.6863643478448274,83.37255675906066,8.65159941017211
417226.08862019813,6335827.456960292,204.53355904077887,-0.2519346051111523,0.08971601681695524,0.9357384161530475,0.08636378060296063,0.8375,115.0,115.0,5.0,3.6863643478448274,74.48847220924617,8.666007456464797
417226.879258658,6335827.547077071,204.525545554171,0.018189221449209488,0.07351857901929403,0.9971279610772408,0.20865354837938394,0.8625,114.0,114.0,5.0,3.6863643478448274,83.37255675906066,8.706100635074904
417226.0156360642,6335827.467789524,204.7378168726268,-0.2519346051111523,0.08971601681695524,0.9590119706291246,0.08714529795645798,0.7375,115.0,115.0,5.0,3.6863643478448274,74.48847220924617,9.018007455180623
417226.884299033,6335827.56940729,204.83517360476168,0.018189221449209488,0.07351857901929403,0.9971279610772408,0.2287446339246223,0.775,128.0,114.0,5.0,3.6863643478448274,87.0200832146516,9.068343225102495
417225.9813484518,6335827.513488762,204.93486916346797,-0.21774012049072708,0.15705918334919972,0.9598242738708757,0.09933187912053096,0.6625,115.0,115.0,5.0,3.6863643478448274,74.48847220924617,9.068197243911612
417226.8991212009,6335827.609719543,205.02666221789292,0.02012021858851581,0.047934457146046286,0.9967891760980995,0.24996404706086697,0.725,128.0,128.0,5.0,3.6863643478448274,87.0200832146516,9.152951919506677
417225.9298660776,6335827.574603718,205.14146881679648,-0.2519346051111523,0.19016665406692004,0.9331192500259671,0.11082518197740517,0.575,115.0,115.0,5.0,3.6863643478448274,74.48847220924617,9.272571966201212
417226.89702718816,6335827.534264529,205.2368873483647,0.005168580522828585,-0.02355860823205764,0.9986478181131044,0.24240116313661253,0.875,128.0,128.0,5.0,3.6863643478448274,87.0200832146516,9.442746606963027
417225.8860828816,6335827.616927129,205.32227974356186,-0.2519346051111523,0.08971601681695524,0.9635766659036465,0.11106737311265505,0.5,115.0,115.0,5.0,3.6863643478448274,74.48847220924617,9.58616321193503
417226.88733054337,6335827.534753925,205.46673353464936,0.02012021858851581,0.047934457146046286,0.9972791731244997,0.17941461474810858,0.8125,128.0,128.0,5.0,3.6863643478448274,87.0200832146516,9.766426272909086
417225.82361775124,6335827.610330657,205.56287714176358,-0.2519346051111523,-0.048923569891923584,0.9635766659036465,0.1073897439156026,0.4,115.0,115.0,5.0,3.6863643478448274,74.48847220924617,9.77719180884688
417226.8971913552,6335827.537290089,205.65738695453973,0.04878401704977447,0.055266359863858444,0.9972791731244997,0.17941461474810858,0.9,128.0,128.0,5.0,3.6863643478448274,87.0200832146516,9.81573998086688
417225.74999852304,6335827.595084939,205.80599242072242,-0.2519346051111523,0.08971601681695524,0.9635766659036465,0.07819251646142576,0.75,115.0,115.0,5.0,3.6863643478448274,74.48847220924617,9.924623784402911
417226.9038668987,6335827.548574958,205.86679139872928,0.04878401704977447,0.055266359863858444,0.9972791731244997,0.1769426498720803,0.0,162.0,128.0,5.0,3.6863643478448274,85.77247091882371,9.991097996829922
417225.7198332022,6335827.610142793,205.99940557142756,-0.1828497270895924,0.08971601681695524,0.9635766659036465,0.0819568549828529,0.6,115.0,115.0,5.0,3.6863643478448274,74.48847220924617,10.11884520299796
417226.9105424422,6335827.556137537,206.08263889902776,0.14919380045704944,0.06973333317836398,0.9823870499370488,0.1769426498720803,0.925,162.0,128.0,5.0,3.6863643478448274,79.2305584282732,10.209794437312354
417225.6969515076,6335827.609127374,206.1058366748667,-0.3082102526220602,-0.018974163139982687,0.9511290245344125,0.07924827419890153,0.6375,115.0,115.0,5.0,3.6863643478448274,74.48847220924617,10.375179134825203
417226.8798274128,6335827.575745424,206.28207043995278,-0.10923468640501241,0.06973333317836398,0.9915669647229247,0.1769426498720803,0.0,215.0,162.0,5.0,3.6863643478448274,82.55379028605843,10.413259323572277
417226.8574892095,6335827.590005705,206.48484325044186,-0.10923468640501241,0.06973333317836398,0.9915669647229247,0.1769426498720803,0.0,215.0,162.0,5.0,3.6863643478448274,82.55379028605843,10.616724209798605
417226.8351510063,6335827.604265986,206.68761606093094,-0.10923468640501241,0.06973333317836398,0.9915669647229247,0.1769426498720803,0.0,215.0,162.0,5.0,3.6863643478448274,82.55379028605843,10.820189096058527
417226.8128128031,6335827.618526268,206.89038887142001,-0.10923468640501241,0.06973333317836398,0.9915669647229247,0.19859804387899432,0.0,215.0,162.0,5.0,3.6863643478448274,82.55379028605843,11.023653982285339
417226.794510227,6335827.631004014,207.10904418083945,0.05076841951284273,0.08086641064631132,0.9914800757218624,0.22269689767794162,0.4125,215.0,215.0,5.0,3.6863643478448274,86.95700786977845,11.367918671585812
417226.8069117711,6335827.648539772,207.2685716488349,0.05076841951284273,0.08086641064631132,0.9852883629815588,0.22514035746997493,0.4625,215.0,215.0,5.0,3.6863643478448274,86.95700786977845,11.485756956871796
417226.72424441925,6335827.668076959,207.51951735913107,-0.1505571831640801,0.08086641064631132,0.9852883629815588,0.22514035746997493,0.3,234.0,215.0,5.0,3.6863643478448274,81.0366646873006,11.781972961462941
417219.3981709677,6335828.677469639,195.9778961051939,-0.008267683188931662,0.039995007595493154,0.9991656743414097,0.32614478236554906,0.0,11.0,11.0,4.0,5.759584050270104,87.65935456994158,0.0
417219.39646960667,6335828.685699991,196.1835089094907,-0.008267683188931662,0.039995007595493154,0.9991656743414097,0.32614478236554906,0.0,11.0,11.0,4.0,5.759584050270104,87.65935456994158,0.20538979806138968
417219.39434290543,6335828.693638724,196.42756886517935,-0.018128027543895246,0.039995007595493154,0.9991438120372161,0.331173494331903,1.0,11.0,11.0,4.0,5.759584050270104,87.62888192880331,0.5904302701913196
417219.39395590685,6335828.704538561,196.61733798532856,-0.007751374115574659,0.038301346088368445,0.9991438120372161,0.325496008624771,1.0,11.0,11.0,4.0,5.759584050270104,87.62888192880331,0.7918402164976897
417219.38981792354,6335828.71193743,196.84298051446962,-0.019696360472181394,0.036382636681389226,0.9991438120372161,0.31786741116952727,1.0,11.0,11.0,4.0,5.759584050270104,87.62888192880331,0.8407853849730884
417219.38901998417,6335828.717338268,197.020055824927,-0.018553910398496222,0.03611677621129829,0.9991753253984145,0.30828580439681086,1.0,11.0,11.0,4.0,5.759584050270104,87.62888192880331,1.0412737431178698
417219.387649386,6335828.725788941,197.1988391028757,-0.019696360472181394,0.052249342075488245,0.9982976480136975,0.3021596532621249,1.0,11.0,11.0,4.0,5.759584050270104,87.62888192880331,1.2448341149529938
417219.3831145742,6335828.748351926,197.49380144521675,-0.019696360472181394,0.036382636681389226,0.9991438120372161,0.29476593141611923,1.0,11.0,11.0,4.0,5.759584050270104,87.62888192880331,1.4943582350684324
417219.3758845682,6335828.758204181,197.71679489994145,-0.019696360472181394,0.036382636681389226,0.9991438120372161,0.29439247612407227,1.0,11.0,11.0,4.0,5.759584050270104,87.62888192880331,1.740074190222657
417219.3722530877,6335828.773261832,197.89622928347188,-0.014375035523147405,0.07802551662997703,0.9967218594142446,0.28946364485129333,1.0,11.0,11.0,4.0,5.759584050270104,87.62888192880331,1.9422682003077227
417219.3735088144,6335828.789265307,198.12293058790033,-0.019696360472181394,0.036382636681389226,0.9991438120372161,0.2934367899802657,1.0,11.0,11.0,4.0,5.759584050270104,87.62888192880331,2.145514057951033
417219.3664031168,6335828.792541446,198.30105764685686,-0.03115078348712817,0.007629162337216721,0.9991438120372161,0.29709529420033565,1.0,11.0,11.0,4.0,5.759584050270104,87.62888192880331,2.347322161798928
417219.3618550347,6335828.7831168175,198.5468118627822,-0.019696360472181394,0.036382636681389226,0.9991438120372161,0.29784447426854144,1.0,11.0,11.0,4.0,5.759584050270104,87.62888192880331,2.547150658032308
417219.3606515746,6335828.775960433,198.79489082255924,-0.005736231239164358,-0.007108106955804522,0.9992273446214899,0.29096484198716277,1.0,11.0,11.0,4.0,5.759584050270104,87.62888192880331,2.792136640129712
417219.3654310678,6335828.7728240825,198.99842051955744,-0.019696360472181394,0.036382636681389226,0.9991438120372161,0.28516745287587986,1.0,11.0,11.0,4.0,5.759584050270104,87.62888192880331,2.9972875092335585
417219.37223573256,6335828.771713998,199.2516903665891,-0.0012335717262420525,0.03172808401047842,0.9994957763721767,0.27398220332450124,1.0,11.0,11.0,4.0,5.759584050270104,87.62888192880331,3.443542171244161
417219.3738989193,6335828.776501128,199.47542735313158,-0.019696360472181394,0.035593878356412215,0.9991438120372161,0.27120893573115556,1.0,11.0,11.0,4.0,5.759584050270104,87.62888192880331,3.4940377712886175
417219.3719813388,6335828.777909069,199.69969256102442,-0.019696360472181394,0.036382636681389226,0.997723025046862,0.2668374251295102,1.0,11.0,11.0,4.0,5.759584050270104,87.62888192880331,3.899333229875225
417219.3851329446,6335828.783462261,199.94858453917948,0.02418136341309871,0.010251552555263567,0.9991438120372161,0.2654406969854644,1.0,11.0,11.0,4.0,5.759584050270104,87.62888192880331,3.9478202542761096
417219.386460141,6335828.781972185,200.15362541823114,-0.019696360472181394,0.006721120371007611,0.9991438120372161,0.2618317959947015,1.0,11.0,11.0,4.0,5.759584050270104,87.62888192880331,4.152205648883097
417219.3827785736,6335828.781177245,200.34242030149187,-0.019696360472181394,0.036382636681389226,0.9991438120372161,0.2612598569014259,1.0,11.0,11.0,4.0,5.759584050270104,87.62888192880331,4.352571829312808
417219.389745343,6335828.784314029,200.54560383461535,-0.019696360472181394,0.036382636681389226,0.9991438120372161,0.2549305276997013,1.0,11.0,11.0,4.0,5.759584050270104,87.62888192880331,4.5624114313413315
417219.4021482078,6335828.795358538,200.80225468890757,-0.019696360472181394,0.036382636681389226,0.9983138577786624,0.26046953949387963,1.0,11.0,11.0,4.0,5.759584050270104,87.62888192880331,4.903812944904729
417219.39213993336,6335828.806777951,201.05651842645028,-0.019696360472181394,0.036382636681389226,0.9991438120372161,0.261638442643443,1.0,11.0,11.0,4.0,5.759584050270104,87.62888192880331,5.055602574287434
417219.3910280635,6335828.805711089,201.27635078589452,-0.019696360472181394,0.036382636681389226,0.9991438120372161,0.2629809141666659,1.0,11.0,11.0,4.0,5.759584050270104,87.62888192880331,5.298119193535996
417219.39140623715,6335828.816618595,201.505235791504,-0.010063835168944267,0.037416392284106495,0.9991438120372161,0.26538429125622265,1.0,11.0,11.0,4.0,5.759584050270104,87.62888192880331,5.501831944037207
417219.3852973643,6335828.828846232,201.70207183375413,-0.019696360472181394,0.036382636681389226,0.9991438120372161,0.2662953448793939,1.0,11.0,11.0,4.0,5.759584050270104,87.62888192880331,5.707375701191296
417219.3673594332,6335828.818041257,201.906308050128,-0.019696360472181394,-0.013905257538913522,0.9991438120372161,0.2597794371390654,1.0,11.0,11.0,4.0,5.759584050270104,87.62888192880331,5.951264920055962
417219.3494125706,6335828.808647065,202.1543885952702,-0.019696360472181394,0.036382636681389226,0.9572414073478214,0.2548115671697447,1.0,11.0,11.0,4.0,5.759584050270104,87.62888192880331,6.1528604798240565
417219.3561434566,6335828.8236848395,202.35789789567716,-0.019696360472181394,0.036382636681389226,0.9991438120372161,0.25743221914268294,1.0,11.0,11.0,4.0,5.759584050270104,87.62888192880331,6.3534287756135654
417219.350056296,6335828.83486038,202.55687654127527,-0.019696360472181394,0.036382636681389226,0.998795698694924,0.2576424581630099,1.0,11.0,11.0,4.0,5.759584050270104,87.62888192880331,6.599306010518546
417219.3610823877,6335828.839087199,202.8295535268298,-0.019696360472181394,0.036382636681389226,0.9991438120372161,0.2547117488120098,1.0,11.0,11.0,4.0,5.759584050270104,87.62888192880331,6.850333531169554
417219.3662438304,6335828.845395807,203.00710029959018,-0.016004402851043348,0.006342994442432427,0.9995497447302583,0.2522683130597033,1.0,11.0,11.0,4.0,5.759584050270104,87.62888192880331,7.052862719873389
417219.3723672426,6335828.847783599,203.23446538022932,-0.019696360472181394,0.036382636681389226,0.9991438120372161,0.2632672945597725,1.0,11.0,11.0,4.0,5.759584050270104,87.62888192880331,7.2558973595075145
